-1.947530 2.358581 3.049056 
-1.455716 3.701615 1.683202 
-1.307277 -2.978489 2.841620 
-2.005394 -2.407948 2.972779 
-0.431957 -0.416648 4.277699 
0.724189 -1.083211 4.118112 
-3.434816 -2.019953 1.668328 
1.756877 1.325039 3.716498 
1.663583 3.346249 2.166125 
-1.799604 -2.956628 2.583549 
-1.191598 -3.551742 2.149862 
1.274983 -3.759303 1.702739 
-3.487334 -1.069583 2.313551 
-1.866728 -3.467475 1.774823 
3.005829 -0.727587 3.015369 
0.396815 -3.167573 2.909506 
-0.973062 -1.096864 4.062690 
-3.012993 -3.002958 0.747819 
-1.749031 -2.434981 3.109064 
-2.943579 -3.147824 0.289123 
0.722257 -3.576438 2.311785 
-0.966524 4.177033 0.520468 
-4.168832 -1.105213 0.233600 
2.660063 -3.402632 0.042376 
-3.006403 1.777282 2.541830 
0.177028 -4.252071 0.737183 
-2.935948 -1.258130 2.907439 
2.427968 -3.325230 1.305941 
-0.612967 -3.952841 1.628962 
3.906844 -1.841922 0.017698 
-0.088180 0.696834 4.261999 
-1.598972 -3.964887 0.616572 
3.805880 1.802545 0.961717 
3.017721 2.356799 1.998394 
-1.549746 3.484638 2.027547 
-1.247638 3.671213 1.902659 
3.984930 -0.828666 1.445045 
0.992597 2.079106 3.653458 
1.883178 -0.617044 3.837559 
-1.325297 2.808317 3.002439 
-3.456493 -0.782042 2.468835 
2.794504 0.272234 3.282167 
3.055927 0.438302 3.020438 
2.879280 -2.759101 1.659847 
4.093927 -0.523033 1.272526 
1.508166 -2.989854 2.727705 
1.647904 1.630516 3.644559 
1.111885 -0.408938 4.153514 
1.113460 4.172769 0.048254 
1.366675 3.106215 2.672156 
2.123348 -2.659104 2.659451 
-1.290157 -4.053920 0.746284 
-0.031383 -4.170699 1.122021 
-2.765309 2.881458 1.644655 
-3.136558 -2.936864 0.444384 
0.911372 -3.941244 1.513224 
-1.725815 -3.947881 0.302225 
-0.159941 -0.602635 4.274230 
4.277106 -0.279430 0.530014 
4.101381 -0.795818 1.095098 
2.201276 -3.660583 0.639803 
-3.428377 2.021157 1.679900 
3.442291 2.512708 0.700655 
-3.977916 0.440311 1.624113 
-2.851384 3.188549 0.597866 
0.415897 -2.968344 3.110472 
-2.788542 1.635231 2.864450 
-1.815784 -0.702416 3.855684 
-0.771161 4.003772 1.424356 
-0.364660 0.953311 4.196525 
-2.304284 -2.829018 2.312131 
-3.528920 -2.115238 1.314059 
-0.791399 4.164210 0.829339 
0.869882 0.768420 4.160459 
3.355614 1.750790 2.080791 
4.119312 0.834284 0.995711 
4.103534 1.273073 0.443617 
-4.279516 -0.477848 0.336568 
-3.100198 -1.422806 2.649577 
-3.887984 -1.743163 0.709654 
0.542385 -0.650500 4.235254 
0.578695 4.237645 0.603706 
1.667356 -3.754498 1.336009 
-0.847433 3.721941 2.021350 
-0.050974 -4.285094 0.538144 
-1.587847 -2.880473 2.799218 
-2.617202 -3.408170 0.435857 
-4.060285 -1.002015 1.079167 
-2.708249 2.396522 2.361778 
0.366944 1.640275 3.978322 
2.103883 -3.660338 0.912920 
1.778481 -3.266829 2.195341 
-0.375244 -4.047862 1.459388 
1.332535 -3.983679 1.004348 
-0.353410 2.687652 3.363349 
1.785222 0.663377 3.876860 
-2.812176 2.003580 2.594957 
3.118118 -0.444028 2.956450 
0.388865 -3.360616 2.685396 
-2.643946 -1.090847 3.237305 
1.069866 -4.085417 0.905281 
-0.700607 -0.578857 4.222708 
0.746573 3.082953 2.931187 
1.446097 3.275888 2.415179 
-3.297161 -0.972419 2.615029 
3.687510 0.796833 2.103615 
1.912653 -2.618775 2.852521 
-1.624367 -3.661171 1.616873 
1.975066 3.288738 1.984961 
-1.572878 -2.305282 3.296212 
0.159505 3.615647 2.357499 
3.072616 0.118912 3.033122 
2.661026 3.401865 0.042896 
-2.526700 2.302036 2.640591 
0.854856 1.871899 3.797051 
-3.395595 -0.039785 2.669141 
-2.009570 -3.816421 0.228647 
-2.282270 2.601353 2.583886 
-2.116534 2.837747 2.474224 
-0.751018 4.107411 1.104134 
-0.466790 -1.652915 3.962786 
1.634022 1.089344 3.846839 
-0.731660 1.022245 4.132323 
-0.486909 4.106835 1.245202 
-1.500322 -3.943382 0.924620 
2.873585 3.150911 0.687087 
-3.677106 1.996524 1.072314 
-3.959766 0.728183 1.563838 
4.200413 0.017888 1.005311 
-1.606484 -1.986142 3.482915 
-1.155271 -4.038309 1.008558 
-3.507352 0.173488 2.514904 
1.949585 0.936572 3.738850 
0.271134 -3.733573 2.154967 
-3.575088 0.466070 2.378633 
3.940499 -0.009810 1.768685 
-1.046356 -2.899435 3.025514 
1.674967 -1.991806 3.447135 
-1.900737 2.122250 3.246257 
3.671440 1.072073 2.006388 
2.745497 -0.020417 3.334079 
-2.450671 2.659280 2.361087 
-1.706346 -3.423825 2.005862 
-4.082494 -1.386632 0.261608 
2.017773 -1.931495 3.294718 
3.883640 -1.163743 1.489032 
2.965863 2.127078 2.309495 
-0.106600 3.855659 1.943941 
1.245388 -2.960458 2.887979 
-4.003099 1.457698 0.713146 
-2.210236 2.052056 3.091781 
-0.297369 4.197141 0.975629 
-1.703597 3.656101 1.544229 
-3.363278 -1.323580 2.365088 
-3.162517 2.120582 2.038426 
4.056010 0.019883 1.484656 
0.806474 -2.910227 3.088272 
-0.040613 4.318958 -0.031106 
3.174473 -0.133715 2.925904 
-3.364121 -2.664790 0.486286 
-1.402695 0.439382 4.061401 
3.829799 0.333648 1.969362 
-3.856678 0.555016 1.863590 
-2.561856 3.331308 0.996977 
2.654399 0.929101 3.278221 
-0.021231 3.387465 2.680124 
-3.910401 -1.819679 0.230290 
0.054299 -3.367996 2.703481 
3.711337 -1.341711 1.754932 
3.938686 1.553918 0.855302 
0.526896 4.094982 1.269054 
4.182847 -0.500938 0.951905 
0.687469 3.996142 1.488778 
2.287370 0.585083 3.616740 
0.633794 4.265179 0.244033 
-1.395322 4.082731 0.198689 
-3.654607 -2.039760 1.069252 
2.824544 2.385079 2.232806 
-0.526815 3.981180 1.589848 
0.266830 -1.876334 3.881839 
3.323783 0.572258 2.698148 
-2.318731 -3.634058 0.268245 
-3.910237 -0.771775 1.663486 
1.833543 -2.171732 3.252226 
0.970970 -3.289081 2.625500 
0.468626 -4.229375 0.741145 
1.682419 2.982436 2.632878 
1.315280 3.564101 2.056484 
-3.741233 -2.005835 0.798129 
2.308331 2.341739 2.800227 
-2.565606 -0.815231 3.377747 
3.995843 -1.083526 1.230928 
0.040952 -2.095569 3.776312 
2.089933 -2.892647 2.432686 
3.391751 -0.214457 2.665719 
1.741873 3.950354 -0.123266 
0.550424 -3.747710 2.076052 
-1.889208 -2.739982 2.753568 
0.996460 3.699459 1.993855 
-3.831455 1.798871 0.860146 
-3.430794 1.582544 2.092698 
-1.425593 -3.348329 2.326111 
1.995653 1.721479 3.422090 
-0.995274 -4.154925 0.636804 
1.552165 -1.574865 3.710298 
-4.153772 0.954347 0.700342 
-0.348201 3.368444 2.681482 
0.552713 -4.283420 -0.042818 
0.438730 -0.943252 4.191864 
-4.314152 0.178085 0.103414 
2.249239 1.776760 3.230879 
1.020969 -1.204576 4.020091 
0.124168 0.882463 4.226139 
1.040954 4.004993 1.237966 
3.273271 -2.789010 0.404717 
-2.661653 -3.401885 -0.020351 
0.755339 1.032793 4.125555 
3.528021 -0.433606 2.453398 
0.246904 3.826864 1.987033 
-3.102352 0.038529 3.004812 
2.742820 -3.009688 1.439777 
2.202766 0.990158 3.581086 
2.288352 -3.646141 0.356510 
2.452129 3.550874 0.189160 
1.971231 -3.840383 0.144184 
4.301462 0.379388 0.096631 
-2.878508 -2.644765 1.836896 
-0.681518 -1.456357 4.008909 
0.717593 3.752334 2.015681 
-1.277141 1.819857 3.703293 
0.961560 2.325188 3.510927 
3.716624 1.724179 1.367593 
-2.887551 -3.212685 -0.016769 
-0.832496 3.890983 1.680309 
3.065727 -2.740667 1.320606 
3.987439 -1.646190 0.212072 
2.383004 -3.186909 1.678851 
3.826706 1.194939 1.607382 
-0.982883 -1.423192 3.957926 
-4.100425 1.293894 0.413233 
0.027635 -3.852387 1.952694 
-0.187601 -0.047356 4.314845 
3.643528 -2.316492 0.115105 
-1.534163 2.556999 3.124472 
-0.637884 2.720973 3.293363 
-1.504552 0.699088 3.988288 
0.254016 3.981794 1.654988 
-2.718511 -0.536627 3.313498 
-1.994062 -3.765397 0.709178 
0.327913 3.366187 2.686829 
3.698883 -2.051726 0.873734 
-1.974996 -0.263263 3.832148 
-2.745758 1.384067 3.033515 
-2.305352 3.522083 0.967847 
2.536619 -0.194841 3.490268 
2.617630 -0.456088 3.405452 
2.632666 3.299254 0.916272 
2.346591 -0.688579 3.559944 
-3.860620 1.074685 1.611282 
2.064139 3.723226 0.729092 
-0.143415 -1.901074 3.875402 
4.081584 -1.289691 0.578403 
-3.680494 -0.036409 2.260325 
1.317892 3.709849 1.776519 
-0.448585 0.642850 4.247365 
1.003711 1.625661 3.873722 
-2.681068 2.795009 1.911166 
0.006790 -1.623337 4.002097 
0.057874 -3.161973 2.942147 
-3.276830 2.294915 1.628692 
3.207663 2.044768 2.045092 
-1.011848 -4.185295 0.337293 
2.059222 2.917111 2.429973 
-3.486325 0.739337 2.440118 
-3.335956 -2.360707 1.397696 
0.271917 -4.182745 1.043284 
-2.252471 -3.627822 0.650754 
-1.197263 1.528313 3.858316 
-3.799181 1.709694 1.140741 
-1.273244 2.427962 3.337439 
-3.282547 1.868278 2.094572 
3.567334 1.814567 1.624113 
2.885393 -2.987156 1.185959 
-4.220732 -0.913190 -0.075364 
-0.666740 2.109623 3.709424 
1.414456 -2.350424 3.335985 
1.403352 3.891701 1.241442 
4.084997 0.427009 1.336352 
4.013548 0.814309 1.371814 
2.913179 1.912466 2.552006 
3.606442 2.006525 1.273950 
2.366125 3.229063 1.623017 
-1.991977 2.687603 2.731727 
-3.352365 2.698481 0.368438 
-2.537750 -2.563709 2.374902 
3.244727 -2.851115 -0.027808 
-0.024359 -0.850770 4.234741 
0.425626 -2.638341 3.392953 
2.700328 -2.255859 2.504882 
1.868882 -3.552559 1.594384 
-1.823837 3.817296 0.870028 
1.067612 0.544451 4.149650 
3.097679 2.972603 0.473848 
3.514025 1.316833 2.138924 
2.963367 -2.174197 2.268066 
-1.238603 -1.235651 3.949141 
3.181615 -2.137691 1.990960 
1.894223 2.795547 2.692865 
2.481257 2.451046 2.547448 
3.650551 -2.222692 0.623677 
-2.784233 -0.837479 3.194039 
-3.471906 -2.325441 1.092202 
1.851206 2.024895 3.335895 
0.194551 0.042552 4.314542 
-2.931359 -2.982231 1.083285 
-3.001590 1.302761 2.820123 
3.464762 2.078910 1.527609 
-1.957369 3.637166 1.262450 
-2.953677 -2.134741 2.318297 
-3.799847 2.051896 0.072895 
1.567260 2.034342 3.473149 
-1.569280 -2.641946 3.035417 
-0.052618 2.697798 3.372582 
3.394874 2.635069 0.433636 
-2.996814 -0.206852 3.103708 
0.458287 3.178221 2.888681 
3.288033 0.881123 2.658978 
4.067616 -1.453761 -0.017086 
-1.824595 -1.039097 3.774422 
3.309793 2.124819 1.785415 
-3.551026 -2.390603 0.574348 
-2.014218 0.144248 3.818279 
-3.445572 2.602798 0.101432 
-3.418151 -0.380315 2.612799 
3.022299 -1.880431 2.446486 
3.652212 1.373537 1.852389 
2.811377 3.257285 0.374886 
-4.027779 -0.017426 1.558566 
-2.081460 -0.527440 3.747760 
-2.404119 -3.009751 1.953592 
-1.295100 4.093119 0.475648 
3.008007 0.788049 2.997482 
2.140612 3.402556 1.579016 
4.315534 0.103369 0.157259 
-1.009733 -0.592988 4.157366 
2.663881 -3.331548 0.682180 
3.287920 1.153555 2.552074 
-4.310925 -0.265525 0.037082 
0.850937 -4.231805 0.162508 
-3.644712 1.876945 1.360535 
-3.058266 -0.942095 2.900948 
0.753224 -4.156125 0.903182 
1.993297 -1.642007 3.462278 
-0.187528 -3.945961 1.746002 
-3.944103 -1.759842 -0.049322 
-1.604174 0.988967 3.886508 
-3.699642 0.264078 2.212598 
1.634065 -2.657331 2.987181 
3.331260 -0.673274 2.666235 
-3.945726 1.722420 0.344045 
0.216445 -1.116974 4.166586 
-3.332500 2.657119 0.702191 
-0.157156 -3.746527 2.143569 
-4.065712 1.203410 0.821869 
2.428681 -2.744076 2.285730 
-4.052244 1.490474 0.110205 
-1.109578 4.170982 0.166408 
-1.451840 3.823839 1.387174 
-0.701782 3.374500 2.602893 
-2.787134 3.159940 0.949111 
1.628984 -0.775607 3.924214 
-2.642008 -3.225771 1.126881 
2.275270 3.644004 0.446215 
1.613660 -4.006058 0.033959 
1.639597 -0.487679 3.965924 
-3.011445 2.000945 2.363294 
3.348920 1.527867 2.259788 
3.675989 -1.064471 2.002176 
-3.720405 1.601510 1.499445 
-1.650328 3.838140 1.095458 
-0.475882 4.228545 0.741010 
3.339121 2.377012 1.361491 
2.774138 -3.292760 0.341127 
4.080879 1.208416 0.737719 
3.447682 -1.004825 2.400476 
1.241482 2.338689 3.412379 
4.014628 -0.269788 1.571440 
0.456219 3.712646 2.159928 
3.404104 2.658301 -0.041963 
-1.953509 1.518397 3.540380 
-1.290688 -2.281954 3.432882 
0.860915 2.644596 3.305527 
-1.895314 1.815388 3.430388 
0.957004 0.185744 4.207892 
3.033904 -3.052748 0.364707 
-2.998924 2.707468 1.527046 
-0.744543 0.589900 4.213469 
1.379054 -3.873792 1.322906 
-1.650148 3.938373 0.648338 
-1.319791 2.104002 3.533542 
2.344315 -1.368473 3.359444 
2.979619 -2.428666 1.969173 
-0.711844 -4.252198 0.269779 
3.614472 2.284182 0.610753 
-1.118491 -4.171068 0.065709 
4.235326 -0.205990 0.821995 
2.146565 -2.425977 2.856449 
-2.709709 -2.019094 2.690256 
0.651350 -3.937781 1.651108 
-0.647446 -1.105022 4.124740 
1.959939 2.563110 2.871038 
-0.352091 4.303519 0.092446 
-1.766956 3.486735 1.837755 
1.515535 -3.413731 2.169050 
2.326325 2.764757 2.365751 
3.666096 -0.809518 2.135118 
2.824358 -1.909364 2.651621 
0.269129 4.308581 -0.138839 
3.678516 0.409277 2.225716 
-0.898052 -3.661279 2.108385 
3.257419 -1.641917 2.312645 
0.623203 2.443604 3.506438 
-3.717313 -2.138591 0.512386 
-0.754969 -0.239706 4.245975 
-3.331418 0.234724 2.739004 
-2.763994 3.014814 1.387886 
0.266816 4.262121 0.648742 
0.859300 3.304337 2.645500 
-0.168962 -4.228904 0.862884 
0.340913 -1.566898 4.010214 
-0.949932 1.364175 3.986301 
-2.993459 -1.773385 2.560223 
2.673569 -1.329278 3.121662 
-1.527754 -0.529882 4.005191 
1.165874 3.867907 1.527896 
1.407550 -1.814990 3.658253 
2.655511 -3.183755 1.211024 
-3.614583 -1.347995 1.943024 
2.526073 0.520007 3.464590 
2.673940 1.924841 2.792619 
-2.434768 0.177676 3.563224 
-3.088269 2.429590 1.793122 
0.608603 2.171419 3.683568 
1.272143 -2.750445 3.077671 
-0.763499 3.574125 2.302481 
0.838197 4.237322 -0.000967 
1.264315 -3.154127 2.665901 
2.876814 3.220312 -0.087044 
-3.786080 2.041059 0.394621 
1.359884 0.101851 4.098121 
-3.289088 -2.027349 1.930912 
-2.510852 -3.441442 0.711995 
3.830997 -0.978142 1.737886 
-4.065201 -1.454872 -0.115493 
-2.083005 -3.287027 1.873298 
1.752005 3.460262 1.900893 
3.266293 2.821977 0.156011 
-1.999352 -3.015630 2.358635 
3.422866 -1.349323 2.262405 
1.513757 2.879406 2.841314 
-2.400545 -3.434600 1.047901 
0.963502 -3.097141 2.851974 
1.133318 3.352048 2.477297 
-1.149475 2.651268 3.210498 
-2.161642 1.805080 3.274794 
-3.059485 -2.666709 1.477096 
-0.390643 2.312658 3.626937 
1.306091 -2.130723 3.522751 
-2.935348 3.168268 0.014013 
-3.638630 2.326997 -0.010483 
-3.299294 0.517448 2.738775 
4.316904 -0.148374 -0.026244 
4.234774 -0.544846 0.651638 
2.608756 2.649708 2.196763 
-2.286067 -2.252340 2.890651 
-1.280831 -0.673652 4.069324 
0.039141 -3.642804 2.320553 
-0.247666 -1.480036 4.049764 
-0.620300 -4.274426 -0.018526 
-1.771612 -3.840419 0.874744 
-3.475532 1.779781 1.847367 
2.250419 3.686961 0.001699 
1.056611 0.985871 4.070729 
-3.622137 1.539452 1.780456 
-0.404204 -4.296044 0.182725 
-0.924629 -2.379546 3.483902 
-4.229885 0.655292 0.582898 
-0.650869 2.429408 3.511539 
4.251053 0.739982 0.188145 
-4.225132 -0.150691 0.884529 
-3.131179 0.329423 2.956579 
3.121655 2.670631 1.335395 
3.371420 -2.032407 1.776962 
3.273545 -1.146807 2.573696 
0.035777 -4.311504 0.254673 
-3.277066 -0.619024 2.745329 
3.954814 0.308761 1.708409 
-2.430124 -1.934570 3.001153 
3.059132 3.046289 0.134030 
2.973904 -1.650488 2.662196 
-1.372459 1.287760 3.888126 
-3.118995 0.734774 2.896225 
-3.869391 -0.087248 1.916933 
3.827853 1.900773 0.623432 
3.344274 -1.822183 2.038235 
4.255956 -0.681660 0.280168 
-0.353340 -4.277241 0.484697 
-0.202892 4.129173 1.251092 
-3.654684 -1.530473 1.719081 
3.204099 1.437500 2.514607 
-1.193162 0.258772 4.143204 
-1.301726 -3.653514 1.900672 
2.408996 -2.335876 2.719242 
-0.438500 3.845968 1.916419 
-3.333614 1.011281 2.553113 
1.702399 2.595683 3.002983 
-2.608835 1.203421 3.225164 
-3.970191 -0.388233 1.655491 
-0.429264 -1.942186 3.833561 
-0.132611 -2.413272 3.579687 
1.975644 -1.312945 3.609304 
-3.015400 3.079942 0.276512 
1.132042 2.672588 3.198792 
-2.008861 0.933170 3.707775 
-2.714387 3.359946 0.009221 
-0.205576 3.215786 2.876389 
3.978976 -1.537198 0.677803 
2.813625 0.667170 3.208729 
4.190950 -0.894177 0.539314 
-0.889157 2.987276 2.990327 
3.542607 -0.054050 2.470232 
3.960994 1.720906 0.074138 
-2.269224 3.624073 0.609178 
-1.692382 0.442913 3.949130 
-1.440837 -3.123509 2.612489 
2.311355 -1.636681 3.260979 
2.043621 0.488320 3.773574 
-2.512857 3.063630 1.718665 
4.276883 0.057681 0.599027 
-3.239435 1.610247 2.360464 
-3.671523 -1.002249 2.041600 
-1.876030 -1.980697 3.348583 
3.539115 1.633322 1.861619 
-1.598452 2.051751 3.448325 
1.339312 3.992724 0.958585 
2.817283 2.638371 1.938537 
-2.291153 -3.268658 1.649142 
2.726341 2.122391 2.592599 
-2.734468 -0.068308 3.342942 
1.983495 3.830274 0.222910 
4.167198 -0.786557 0.819104 
-1.025215 -3.874711 1.609488 
0.725242 -1.463951 3.998374 
-2.235013 0.723821 3.624361 
-3.943492 -1.024220 1.434488 
-1.080245 3.593385 2.139051 
0.562262 -4.127007 1.143761 
3.905200 -1.772269 0.512354 
1.012581 4.182147 0.372292 
-0.173425 3.014872 3.087772 
0.529988 1.861339 3.861196 
-0.044721 1.693310 3.972980 
-3.274126 2.638354 0.986792 
-0.627156 3.191960 2.841187 
1.067049 3.124330 2.785347 
-4.241936 0.298467 0.756765 
-3.099364 -2.759103 1.198503 
4.011719 1.549381 0.400738 
-1.964740 3.843450 -0.153121 
2.398153 -3.592006 0.057316 
-3.896109 -1.390223 1.243219 
0.055607 -2.928479 3.174275 
0.317160 2.707824 3.350154 
2.143175 -1.061269 3.596664 
2.446643 2.048650 2.910505 
3.521619 -2.323776 0.924113 
-2.507513 3.450429 0.679403 
1.276187 2.078345 3.564792 
-0.400763 1.900334 3.857852 
-4.274652 0.036907 0.617303 
2.760905 -1.664712 2.874676 
-0.217323 -3.204702 2.887711 
-2.394506 0.482521 3.562556 
0.846085 -0.772603 4.164399 
3.791444 -0.008827 2.068317 
2.099633 -3.246539 1.924940 
0.196123 4.085415 1.388088 
3.454752 -2.149898 1.448579 
-0.469964 -3.852295 1.896003 
3.903298 0.835427 1.649902 
-2.125872 -2.062141 3.143450 
3.662615 -1.971956 1.162678 
-0.991757 3.280397 2.628621 
-2.367869 -3.345681 1.362443 
1.388869 2.705620 3.067544 
-2.300295 2.898254 2.227595 
2.802630 -3.153780 0.923782 
-4.150692 1.194781 0.034126 
-1.670557 1.418866 3.721656 
3.697850 2.085431 0.794817 
2.942660 -3.161410 -0.037872 
-4.197555 0.949541 0.364883 
3.352741 2.498877 1.081001 
-0.193406 2.107318 3.764964 
-1.671712 3.974141 0.252407 
-2.370654 1.382641 3.335027 
3.053550 -2.974108 0.698695 
3.155202 -0.906694 2.806801 
-0.459745 3.694829 2.189299 
-3.465968 -1.788410 1.857172 
0.156128 -2.462159 3.545662 
-3.255903 2.524849 1.295357 
2.973080 1.100592 2.933870 
-2.067170 -1.221815 3.589995 
-3.555335 -2.450912 -0.080953 
0.562496 4.280299 -0.134761 
-0.336121 -3.396820 2.647278 
-1.043960 3.444554 2.388018 
0.322720 -4.280229 0.482312 
0.617481 -4.258926 0.368942 
1.600504 -3.974497 0.543121 
-2.982508 1.018843 2.953330 
4.017580 1.201766 1.035718 
-1.392620 -4.067575 0.410400 
-0.088151 4.025534 1.563102 
-0.166507 4.270286 0.626058 
-0.911788 2.520142 3.387478 
4.078348 -1.131266 0.865267 
3.543808 -1.590628 1.888765 
-1.530079 -0.818570 3.955190 
-3.632429 -2.319313 0.287438 
0.310916 1.126318 4.158126 
-2.250749 -1.780324 3.227832 
-2.131752 -3.588646 1.109297 
0.320353 4.303586 0.183229 
0.225914 -4.313095 -0.000463 
1.074629 -4.012112 1.185070 
2.130395 2.043949 3.152351 
3.650449 2.289629 0.294235 
-4.284045 -0.240277 0.493756 
1.365664 0.582145 4.056237 
-3.447499 2.172298 1.432834 
-1.924524 -3.635856 1.317629 
-1.865551 1.200613 3.705791 
-2.209199 2.392328 2.837333 
3.788373 -2.055558 0.290410 
2.015638 1.230635 3.616299 
2.382286 -1.062403 3.442783 
-1.369598 3.336314 2.376324 
3.847161 -1.786687 0.813190 
-0.100426 1.082504 4.179864 
-1.787629 -1.327891 3.700985 
1.571422 2.416014 3.216593 
2.591118 3.231272 1.224727 
-0.253523 0.388575 4.294289 
2.551696 3.032924 1.715837 
-4.086147 0.411930 1.337571 
-0.375386 -2.284220 3.646613 
-0.846115 0.067412 4.234923 
2.323647 1.360496 3.377327 
-3.631361 -0.764782 2.209374 
3.094553 -1.337899 2.699716 
2.539451 -1.962767 2.890157 
2.994097 -1.124725 2.902662 
-0.673488 -2.678935 3.320937 
-2.743954 -3.254571 0.731142 
0.167701 4.173033 1.102334 
-3.644537 2.287420 0.381843 
-3.286568 -2.793730 0.223276 
-2.623837 -2.295986 2.549561 
-4.233921 -0.413539 0.747677 
0.183235 2.491191 3.524306 
-2.378093 3.319320 1.407816 
-2.550953 -3.150579 1.490663 
-4.177856 0.593078 0.920858 
3.962286 1.106174 1.316365 
0.695414 -2.529083 3.431331 
-1.235317 0.667895 4.084434 
2.238365 0.289672 3.682488 
1.194502 2.895683 2.973785 
-4.232385 0.861073 0.040154 
-0.979675 0.821414 4.125811 
-2.430718 3.550007 0.381679 
1.260095 -1.325849 3.912743 
-2.759240 -2.878250 1.660241 
3.798594 -1.467542 1.440020 
2.722838 1.361614 3.063722 
4.300884 -0.336238 0.209644 
1.863619 -0.924959 3.784893 
3.167827 -2.391199 1.704071 
-2.614531 -1.704569 2.986544 
-2.532064 1.601631 3.111691 
4.166364 0.418406 1.058821 
2.206922 -0.421038 3.688682 
-0.979423 -3.370943 2.516636 
-0.583508 0.315803 4.267941 
-2.608587 1.854713 2.899618 
2.473200 1.789641 3.055620 
0.943958 -0.187022 4.210636 
-0.927911 -3.997638 1.346004 
1.522057 0.839335 3.954026 
-0.725467 4.257000 -0.105302 
0.553694 0.804706 4.207448 
-3.389877 -2.523616 0.891508 
-2.417090 2.105645 2.894645 
3.332644 -2.395366 1.345439 
-1.576463 2.301062 3.297503 
-3.592678 -2.249138 0.831047 
1.172048 -1.598198 3.837463 
4.117642 -0.228951 1.284019 
1.380632 1.613101 3.761190 
-3.450847 2.330208 1.147214 
2.279344 -0.073012 3.667925 
3.252193 0.257121 2.830498 
-1.022159 -2.019956 3.677985 
4.122375 -1.273136 0.200896 
-2.738178 0.288950 3.328144 
-0.949851 -2.674337 3.255800 
1.906848 3.146319 2.263237 
0.491666 -2.301147 3.621991 
-0.404105 -2.523722 3.481789 
-3.780560 -1.120077 1.763654 
-3.605926 1.284134 2.001420 
-2.082060 -3.443627 1.568588 
-1.984925 3.483556 1.606576 
2.536375 -3.469950 0.426787 
-1.689836 2.715008 2.903369 
0.441742 4.189792 0.952103 
-3.435228 -1.552325 2.108202 
1.661578 3.818766 1.146064 
3.234902 2.352292 1.630472 
-0.549076 -3.706347 2.148620 
2.488520 -2.526581 2.465230 
1.085645 -1.925014 3.710835 
0.946766 -2.636883 3.287122 
3.974265 -1.357128 1.011663 
-3.784314 -1.759873 1.113262 
4.287400 -0.522380 -0.020002 
2.801518 -2.413751 2.231435 
0.981711 -2.281359 3.533657 
-0.478440 -0.080528 4.291725 
2.361584 3.349919 1.362881 
-2.809964 -1.736750 2.783448 
-2.805651 -2.992966 1.351159 
0.559955 -1.847218 3.863973 
-1.919203 -3.242878 2.110626 
0.885429 2.872399 3.101758 
-0.949559 1.904314 3.758261 
3.320647 -2.678967 0.672998 
-0.626589 -4.065286 1.316965 
4.238692 -0.829904 -0.016173 
-1.045496 4.187837 -0.149249 
0.450135 -1.302050 4.094149 
3.527541 0.970605 2.295718 
-0.444472 -0.759823 4.228560 
0.142231 1.474851 4.057033 
1.967067 -0.293522 3.834194 
-3.208712 -0.287192 2.876963 
-1.624824 1.747130 3.600214 
-3.972035 1.085517 1.304753 
1.298371 -4.066483 0.658451 
3.235030 2.741802 0.822875 
-1.168783 3.061728 2.813317 
0.642926 -0.140447 4.268986 
-2.157968 0.370966 3.723244 
4.274959 0.498758 0.360821 
-2.267066 3.093914 1.986070 
1.243343 -3.350146 2.425880 
-2.697421 3.351171 0.387171 
1.926021 -3.674218 1.204034 
0.151196 3.201950 2.894931 
0.137815 -0.594567 4.275866 
1.057009 4.126937 0.711104 
-1.702958 0.078205 3.968543 
-2.362149 1.086561 3.448910 
0.897584 -1.755135 3.842935 
-3.675269 -1.712452 1.488909 
-4.234703 -0.777843 0.342871 
1.305248 -0.193882 4.112670 
0.759913 0.485444 4.223934 
-0.084154 3.695123 2.234916 
2.572794 -3.329570 0.975136 
-2.398052 3.592075 0.023418 
-0.483014 1.227490 4.112701 
0.520517 3.871460 1.843353 
-0.750886 -3.014411 3.000747 
-0.346239 1.613047 3.991322 
1.362463 -4.084684 0.334237 
-3.998986 -1.540924 0.539809 
-3.070571 -0.527562 2.991157 
3.893704 1.478428 1.144969 
-0.086069 -4.081651 1.409935 
-3.523957 2.420991 0.611946 
0.137029 -2.703366 3.365878 
0.855088 3.872711 1.712320 
-1.677335 -3.785645 1.229454 
0.993674 -3.804816 1.787821 
1.743134 3.676390 1.449497 
-3.093948 -2.487600 1.701596 
4.186926 1.026364 0.268979 
-3.113982 2.898749 0.746536 
-1.462720 -1.394793 3.817814 
2.091605 -2.188498 3.080540 
-4.040642 -0.734954 1.336666 
-3.697745 2.125962 0.679570 
1.491282 -3.201134 2.486927 
-2.924296 0.682637 3.104296 
-4.161011 -0.709956 0.914974 
3.296174 -2.588578 1.044468 
-0.101561 2.387068 3.598776 
-3.942056 1.435975 1.025843 
-0.384280 -2.784521 3.279341 
-2.634840 -1.375051 3.134187 
2.681906 3.063976 1.440131 
-2.954972 2.281709 2.172044 
-4.050805 -1.307961 0.732733 
-2.028967 -1.711568 3.407321 
-0.176589 3.546515 2.459902 
1.869023 -2.879537 2.620759 
-3.528833 0.985511 2.287111 
-0.729985 -4.136177 1.008113 
-3.072308 -2.273504 2.011270 
-2.466709 -0.571374 3.499655 
0.315124 -0.298006 4.297863 
1.382454 -0.687883 4.033741 
0.769273 -2.089094 3.701772 
3.653944 -1.768896 1.474348 
3.592712 2.397141 0.012465 
0.368199 -3.870533 1.881236 
0.241520 -3.986699 1.644448 
4.240838 0.320643 0.752539 
-3.799499 0.912526 1.840408 
-3.903993 1.845598 -0.101266 
-0.546907 -3.178505 2.872973 
0.914251 3.577592 2.241097 
-1.217380 3.948790 1.257498 
-2.352116 -1.300178 3.380942 
3.528216 -2.442895 0.488754 
2.150852 -3.070604 2.144758 
-2.661752 0.665960 3.335729 
2.768044 -0.688414 3.243663 
-0.119723 4.306772 0.303721 
2.820225 2.843717 1.617442 
0.260177 2.988526 3.108092 
-2.729597 2.593276 2.115738 
0.591228 2.754970 3.274119 
1.601725 -3.918963 0.853776 
-3.123738 -1.892504 2.305467 
-2.681091 -2.655353 2.100949 
0.543460 1.375123 4.058003 
-1.074917 1.076987 4.042089 
1.204007 1.834610 3.720114 
-1.616738 -0.193727 4.000330 
2.428992 1.079932 3.404770 
3.849077 1.959129 -0.032200 
-4.134683 -1.137706 0.515266 
2.304452 -3.487453 1.090206 
-0.479860 3.018735 3.051689 
1.436787 4.021171 0.648801 
1.985517 3.613271 1.287711 
1.747064 -1.190174 3.766406 
1.175706 -4.155781 0.043042 
-0.814680 4.232610 0.271712 
-2.060991 -0.910724 3.685187 
2.111094 3.632495 1.000575 
4.170875 0.935539 0.620730 
-4.065894 -0.429946 1.391312 
-0.431165 -2.989991 3.087257 
3.425499 -2.629057 0.091015 
-4.155034 -0.289130 1.143211 
-1.185111 3.828667 1.609983 
-2.121827 1.252276 3.547294 
3.536843 2.306689 0.907875 
-3.782864 -0.636656 1.985069 
0.845660 -3.698436 2.064064 
-3.775660 -2.088083 0.201699 
0.887166 -4.185423 0.591431 
1.477202 -3.581447 1.909415 
1.369633 4.090286 0.219089 
2.532270 -1.660358 3.080023 
-3.023013 2.886381 1.088732 
0.268562 2.258080 3.671980 
1.947566 0.192116 3.850542 
-3.631156 -0.486398 2.288157 
0.581213 0.177052 4.276219 
-0.153416 1.387710 4.087188 
2.695039 -2.687681 2.042397 
-1.869505 -3.893494 -0.015419 
2.187482 2.644857 2.622197 
3.148038 1.882586 2.280227 
-0.645818 -2.174818 3.675200 
-4.060667 0.719530 1.283749 
-0.056999 -0.322061 4.306579 
-1.559009 -1.675906 3.662777 
2.514396 0.117736 3.509876 
-0.010204 -1.315429 4.113704 
-0.513563 4.263868 0.458656 
0.691306 3.493357 2.444965 
3.706301 1.545878 1.590061 
1.015825 1.264221 4.003155 
-2.131756 3.756220 0.065786 
0.066841 1.957928 3.848959 
0.378650 0.387986 4.285029 
2.476859 2.906466 2.017723 
-1.660865 3.986726 -0.038543 
-0.898560 1.633448 3.896062 
-2.069395 3.081371 2.208913 
2.836742 -0.291650 3.243875 
-1.041246 4.085021 0.940410 
-2.296345 -0.791779 3.571486 
-1.049810 -3.148574 2.764928 
-1.461805 3.140404 2.580487 
-1.877258 0.696524 3.827262 
-0.471245 -4.213814 0.822728 
0.234157 -3.512947 2.501845 
1.843677 -3.790623 0.943065 
0.776230 4.161254 0.858767 
2.639380 -2.962476 1.706400 
-1.077026 -0.317065 4.170974 
0.642200 -3.412132 2.570281 
0.756914 -0.462195 4.227165 
1.593380 -3.667314 1.633124 
1.825423 3.817406 0.866180 
2.782555 -1.045406 3.134475 
3.937583 -0.580934 1.676740 
1.283440 1.324809 3.905391 
1.966486 2.289974 3.089642 
1.870468 3.853033 0.556787 
-2.237962 -0.030022 3.694104 
-1.258038 -3.923901 1.294438 
1.497110 -1.073781 3.906436 
-2.096730 3.759384 0.351238 
-0.813197 -3.805502 1.874588 
-3.664481 0.775039 2.150724 
-0.729571 -1.902191 3.808341 
3.431973 0.222307 2.613026 
-3.154815 2.913393 0.465334 
1.823805 -3.440459 1.868655 
-2.337347 -2.446076 2.684716 
-4.280681 0.572220 0.066332 
-2.817945 -2.407509 2.217218 
3.796337 2.036909 0.310415 
-1.776695 2.919461 2.641225 
2.777906 1.611126 2.888429 
1.837514 -2.423739 3.067222 
3.540089 0.637376 2.391093 
-2.155095 -2.706017 2.586206 
2.547268 3.453451 0.489695 
-0.781520 -3.260201 2.723539 
-2.020378 3.757937 0.671762 
3.978218 0.568188 1.583233 
3.021282 2.540488 1.752530 
2.242451 2.990505 2.163605 
-1.255714 -2.517771 3.277836 
2.844261 3.029324 1.179457 
-1.302907 -1.972170 3.615226 
-3.923048 -1.543441 0.939794 
-1.368868 4.012018 0.827311 
3.071912 2.843609 1.063514 
1.886670 -3.848927 0.528055 
-1.343633 0.003004 4.105362 
2.377287 3.475454 0.961727 
-2.512834 -0.287879 3.501094 
2.131745 -3.423096 1.546897 
2.995398 1.370605 2.793396 
-3.841942 0.254178 1.956379 
-1.772215 3.116689 2.408461 
1.596938 3.634988 1.700217 
-3.261297 2.829416 0.113056 
-1.279541 -1.702217 3.757689 
1.142413 -0.869965 4.074006 
1.648879 3.973291 0.383848 
4.082541 1.405174 0.134750 
-3.543867 2.308574 0.874967 
1.598101 -0.139869 4.010491 
0.090315 0.417841 4.298472 
-0.952796 2.227062 3.575966 
-3.298228 1.283521 2.476067 
-1.500536 -4.049944 0.004104 
3.674948 -0.525431 2.207567 
-1.757263 3.291883 2.174798 
0.461205 -4.040687 1.455199 
-3.798941 -0.344250 2.026517 
1.785130 -3.086581 2.437815 
1.061491 -3.567206 2.191936 
2.091618 -0.758968 3.702081 
-4.182281 0.309299 1.033245 
-3.242489 -2.742619 0.789608 
3.102712 -2.828423 1.013708 
-0.354623 -4.147515 1.151627 
-0.360565 -1.036827 4.177038 
3.808849 -0.345641 2.008417 
-3.832576 1.336756 1.476000 
-1.656169 -3.173364 2.417485 
0.683719 -3.208685 2.809814 
2.376309 -3.042680 1.935947 
-0.617047 1.716880 3.914822 
-0.979351 -1.692068 3.851260 
-4.147816 -0.012548 1.204027 
-1.334261 -3.779309 1.609711 
2.279756 -1.909868 3.132506 
2.380381 -3.512250 0.808493 
2.604332 -0.907225 3.324278 
-0.680393 -3.518631 2.411433 
2.886087 -1.404781 2.890152 
1.616531 0.304956 3.993811 
-4.276148 0.503698 0.340994 
-4.213318 -0.709636 0.631417 
-4.124592 -1.005097 0.796129 
-1.293962 -2.743628 3.074548 
-1.363955 -0.293976 4.088286 
4.228328 0.650390 0.597692 
-4.077347 0.936983 1.072906 
0.184091 -4.111596 1.310103 
-4.295061 0.217228 0.399265 
-0.678085 -4.220501 0.619751 
-2.221475 3.309628 1.663373 
-3.217739 -1.620155 2.382910 
-3.095629 1.491269 2.617322 
3.789709 -1.717490 1.160348 
3.003026 1.654448 2.626394 
1.073965 -4.169734 0.336487 
-4.310175 -0.072454 0.265212 
-2.004914 3.281470 1.967625 
