1.17085 4.14469 0.125742
0.701952 4.24272 0.162615
0.173555 4.30047 0.171652
-0.242126 4.28938 0.263634
-0.676942 4.2501 0.203856
-1.13282 4.13886 0.281873
-1.49571 4.02645 0.296291
-2.02693 3.79309 0.175595
-2.38953 3.57236 0.287759
-2.72471 3.32924 0.237685
-3.0533 3.03318 0.195366
-3.37883 2.66889 0.213544
-3.64048 2.28641 0.259724
-3.86234 1.89235 0.237692
-4.03723 1.47994 0.252777
-4.17919 1.0122 0.231905
-4.26628 0.558244 0.243955
-4.29464 0.129624 0.279378
-4.29361 -0.337619 0.197911
-4.22229 -0.832861 0.241976
-4.11529 -1.25212 0.218327
-3.93451 -1.75095 0.164
-3.68376 -2.21948 0.219166
-3.27826 -2.79051 0.187391
-2.92642 -3.15564 0.195994
-2.53228 -3.47781 0.196884
-1.98663 -3.80856 0.256951
-1.62649 -3.98183 0.246093
-1.12977 -4.15149 0.181949
-0.680431 -4.24651 0.201871
-0.270667 -4.28989 0.294344
0.106517 -4.2918 0.294245
0.498397 -4.27322 0.200261
0.915205 -4.20158 0.168921
1.56618 -4.00858 0.106109
2.19904 -3.69619 0.145362
2.56055 -3.45959 0.19153
2.90892 -3.17354 0.161239
3.23037 -2.84487 0.148489
3.52286 -2.48343 0.119028
3.83681 -1.94763 0.143867
4.10483 -1.31287 0.0720867
4.22505 -0.812548 0.14529
4.27429 -0.438356 0.289179
4.30315 -0.065937 0.121989
4.28044 0.295067 0.333096
4.2572 0.629391 0.137774
4.16112 1.13523 0.0626143
3.91613 1.78121 0.14886
3.72855 2.14722 0.209637
3.48586 2.53008 0.110488
3.17709 2.90807 0.120419
2.85989 3.21318 0.215006
2.53416 3.48032 0.156183
2.13303 3.73716 0.208147
1.73882 3.93298 0.149037
1.44703 4.03048 0.408284
0.859918 4.18765 0.491703
0.424898 4.25871 0.469528
-0.0174919 4.2619 0.619437
-0.452272 4.23854 0.597157
-0.894331 4.17142 0.561953
-1.78391 3.88526 0.479525
-2.14556 3.68167 0.600345
-2.44497 3.47058 0.705688
-2.7344 3.26126 0.633372
-3.00838 3.01859 0.601981
-3.2522 2.7561 0.590411
-3.52535 2.39014 0.618275
-3.74219 2.0336 0.622289
-3.92401 1.662 0.612747
-4.08739 1.21288 0.588228
-4.18883 0.78588 0.59375
-4.22638 0.430804 0.688386
-4.2488 0.0580208 0.656297
-4.2429 -0.300802 0.649463
-4.2094 -0.653654 0.601575
-4.12518 -0.981945 0.738353
-4.05993 -1.29307 0.58602
-3.93119 -1.65805 0.569136
-3.76681 -2.0123 0.536743
-3.48839 -2.49171 0.420285
-3.21811 -2.79874 0.580678
-2.96051 -3.06983 0.579499
-2.65402 -3.34537 0.545583
-2.28944 -3.61915 0.442472
-1.87883 -3.81358 0.661991
-1.36714 -4.04361 0.512752
-0.999628 -4.14112 0.610373
-0.628251 -4.2197 0.561386
1.25343 -4.10141 0.359606
1.89862 -3.8481 0.349478
2.28439 -3.61025 0.533879
2.67304 -3.32849 0.551447
3.01269 -3.02705 0.53974
3.30631 -2.71004 0.514425
3.67736 -2.2018 0.388057
3.96235 -1.64882 0.348846
4.07258 -1.29895 0.489099
4.1761 -0.928382 0.486996
4.26686 -0.0530174 0.548853
4.20128 0.834505 0.430016
4.03395 1.46683 0.334563
3.8431 1.86503 0.537312
3.57063 2.35441 0.480798
3.30806 2.71562 0.465304
3.00614 3.03347 0.533331
2.67 3.32479 0.595527
2.36574 3.55529 0.519096
1.83442 3.85611 0.540418
1.16944 4.08132 0.683102
0.74277 4.14989 0.870386
0.346737 4.20645 0.829024
-1.2189 4.05758 0.759444
-1.53418 3.9398 0.792854
-1.90279 3.74987 0.902067
-2.22179 3.53109 1.05431
-2.52423 3.30311 1.11365
-2.84216 3.07353 0.996473
-3.07305 2.81361 1.0788
-3.34418 2.54644 0.920231
-3.57305 2.17496 1.01919
-3.76888 1.8284 0.991439
-3.97256 1.38163 0.910999
-4.08793 0.947958 0.952335
-4.12215 0.596797 1.08662
-4.16864 0.156539 1.05393
-4.16115 -0.246029 1.06908
-4.11846 -0.643382 1.07028
-4.02846 -0.995811 1.14526
-3.93895 -1.46092 0.946862
-3.73836 -1.91023 0.957755
-3.58714 -2.24903 0.77221
-3.35813 -2.54922 0.859181
-3.0812 -2.82644 1.02489
-2.81791 -3.11247 0.946294
-2.49727 -3.38744 0.904711
-2.19928 -3.6067 0.817539
-1.54093 -3.93373 0.811229
-1.1392 -4.03186 0.993891
-0.733072 -4.12675 0.983844
-0.332525 -4.21659 0.787892
0.0368408 -4.25058 0.683087
0.452357 -4.23976 0.592453
0.870842 -4.17671 0.570778
1.60668 -3.94318 0.6021
1.95519 -3.75049 0.783892
2.39654 -3.46104 0.892997
2.74904 -3.17796 0.936636
3.08618 -2.86099 0.907258
3.51348 -2.39967 0.63792
3.79043 -1.94063 0.639755
3.92888 -1.57212 0.785166
4.04209 -1.18268 0.882479
4.13542 -0.818695 0.857051
4.22436 -0.492672 0.657413
4.2042 -0.116497 0.898226
4.23181 0.388148 0.679743
4.09779 1.18442 0.554986
3.93756 1.56332 0.75598
3.6748 2.09966 0.772256
3.41051 2.4959 0.816705
3.1149 2.84035 0.86985
2.78986 3.146 0.916434
2.1172 3.66961 0.744574
1.52104 3.93901 0.833818
1.14936 4.00568 1.08243
-0.243012 4.18944 0.957692
-0.680606 4.15702 0.874751
-0.97651 4.04434 1.0957
-1.63083 3.80834 1.16815
-3.2723 2.47329 1.29876
-3.83093 1.51951 1.23142
-3.96082 1.095 1.28812
-4.05132 0.312851 1.40025
-4.03604 -0.0669925 1.48711
-4.02537 -0.479071 1.43439
-3.88306 -1.32033 1.29544
-3.73389 -1.71177 1.27951
-3.46742 -2.25467 1.1883
-3.21742 -2.54419 1.30467
-2.91017 -2.83462 1.42621
-2.65956 -3.12049 1.30417
-2.35918 -3.35704 1.30099
-2.05154 -3.58785 1.19483
-1.74243 -3.77815 1.09948
-1.39031 -3.86571 1.27835
-0.690434 -4.03393 1.32571
-0.220914 -4.14335 1.1474
0.196127 -4.17264 1.03899
0.589684 -4.15713 0.950894
0.956943 -4.07999 0.973635
1.28766 -4.03142 0.777175
1.62697 -3.84706 1.05355
2.07492 -3.59203 1.14606
3.33176 -2.5395 0.984548
3.5881 -2.17469 0.969027
3.75961 -1.81323 1.04339
3.90843 -1.3506 1.19125
4.02909 -0.888583 1.22768
4.13887 -0.483057 1.07043
4.1507 0.492878 1.00687
4.13784 0.859427 0.821901
4.0012 1.25368 0.974399
3.78663 1.76048 1.04906
3.27001 2.54695 1.15536
2.4023 3.43794 0.988738
1.8403 3.75229 1.00874
1.5465 3.81975 1.2465
0.705106 4.06498 1.22427
0.13493 4.15864 1.10227
-0.551485 4.08792 1.22914
-1.26192 3.91367 1.27108
-1.95524 3.59608 1.33034
-2.26517 3.34644 1.48517
-2.67221 3.07816 1.3819
-2.98583 2.72608 1.48302
-3.45705 2.14309 1.40376
-3.62584 1.81536 1.44658
-3.74223 1.41479 1.59137
-3.97894 0.685004 1.48685
-3.91094 0.304859 1.77035
-3.88847 -0.23479 1.83273
-3.89246 -0.687643 1.69586
-3.86021 -1.07255 1.57762
-3.68341 -1.52051 1.63389
-3.52362 -2.00504 1.44449
-3.2684 -2.25369 1.66858
-3.02296 -2.55699 1.68209
-2.58035 -3.01191 1.66962
-2.09964 -3.40023 1.5995
-1.72312 -3.64596 1.50573
-1.03546 -3.92231 1.44087
-0.329948 -4.02591 1.4828
0.0860856 -4.03357 1.50553
0.426189 -4.05242 1.37503
0.809094 -4.00086 1.36558
1.24568 -3.93774 1.21201
2.43345 -3.31677 1.26677
2.8418 -2.97976 1.25343
3.09476 -2.6811 1.3282
3.36199 -2.33305 1.33314
3.56331 -1.98175 1.37629
3.73208 -1.59548 1.43599
3.85427 -1.14607 1.53572
3.95946 -0.694474 1.52983
4.05832 -0.336635 1.38149
4.14449 0.107841 1.15084
4.04693 0.797483 1.22969
3.93539 1.1266 1.32083
3.79497 1.50477 1.36433
3.55764 2.14624 1.1225
2.95104 2.87909 1.24448
2.62095 3.17116 1.26533
2.0474 3.56922 1.26206
1.17954 3.88247 1.43377
0.327853 4.05944 1.38907
-0.154688 4.08102 1.35283
-0.853847 3.94228 1.49995
-1.49523 3.7301 1.54016
-1.83902 3.50769 1.6855
-2.70084 2.89186 1.68486
-3.18355 2.36462 1.67276
-3.3815 1.97435 1.78877
-3.52368 1.61005 1.87579
-3.65415 1.18207 1.93802
-3.83451 0.982615 1.68044
-3.77269 0.673465 1.95953
-3.75918 0.159277 2.08255
-3.70552 -0.959662 1.95999
-3.59451 -1.341 1.94886
-3.44203 -1.85815 1.79246
-3.18242 -2.04487 2.055
-2.93944 -2.3919 2.03619
-2.70449 -2.74626 1.9112
-2.28133 -3.1452 1.84232
-1.76146 -3.46251 1.8541
-1.34881 -3.73258 1.66719
-0.985261 -3.74247 1.88632
-0.65793 -3.88604 1.72768
-0.155799 -3.89377 1.82684
0.519343 -3.89707 1.76183
1.01996 -3.84346 1.64695
1.43348 -3.76844 1.50317
1.79845 -3.64723 1.4085
2.134 -3.40146 1.55555
2.58116 -3.08461 1.52935
2.81054 -2.79617 1.67476
3.09644 -2.47957 1.66962
3.33402 -2.12446 1.70251
3.51381 -1.7399 1.77535
3.66064 -1.36635 1.80627
4.02307 0.0207241 1.51977
4.04046 0.425669 1.41141
3.89794 0.787366 1.64069
3.77506 1.22931 1.66443
3.60967 1.84548 1.44509
3.39479 2.21484 1.44465
3.12667 2.54091 1.51225
2.29129 3.34242 1.44389
1.88594 3.50586 1.64072
1.52821 3.68744 1.61013
0.815455 3.92142 1.57594
0.435103 3.92097 1.7202
-0.0066748 3.96362 1.68478
-0.472275 3.96126 1.61439
-1.06167 3.78976 1.74407
-1.40467 3.60576 1.88222
-2.02413 3.26407 1.94225
-2.35796 3.12411 1.78426
-2.89516 2.55464 1.90074
-3.11472 2.16464 2.0294
-3.27525 1.73656 2.18883
-3.44981 1.29128 2.22316
-3.55329 0.87482 2.26868
-3.61132 0.441271 2.29799
-3.6817 -0.198411 2.21409
-3.71234 -0.588385 2.09935
-3.37049 -1.64478 2.11148
-2.90388 -2.12635 2.35491
-2.37429 -2.86364 2.16538
-1.36359 -3.54813 2.01982
-0.485792 -3.74929 2.05949
0.163619 -3.81235 1.98963
0.869118 -3.72613 1.97215
1.33515 -3.6371 1.87671
1.72821 -3.50676 1.80508
2.01801 -3.25582 1.95829
2.36208 -3.0947 1.82658
2.76416 -2.61767 2.00415
3.07101 -2.25941 1.99481
3.26578 -1.88101 2.07958
3.78174 -0.890581 1.84534
3.89533 -0.396102 1.78764
3.87458 0.0287134 1.86349
3.89124 0.430429 1.7835
3.50734 1.74196 1.78463
3.27788 2.15166 1.77671
2.81695 2.81918 1.6247
2.52275 3.06385 1.65877
2.19395 3.21649 1.83481
1.11043 3.72727 1.84469
0.748498 3.7448 1.98712
0.313197 3.77501 2.04313
-0.092195 3.79823 2.01892
-0.479782 3.80739 1.94808
-0.816004 3.69764 2.04594
-1.19363 3.5131 2.17986
-1.64936 3.37204 2.10931
-2.21261 2.98253 2.17395
-2.55247 2.80484 2.02971
-2.77774 2.38535 2.26162
-2.98076 2.02273 2.35015
-3.22422 1.38376 2.49002
-3.27552 0.979675 2.6205
-3.37771 0.593195 2.59821
-3.49742 0.0897414 2.51331
-3.4793 -0.358633 2.50729
-3.45183 -0.75717 2.45752
-3.48172 -1.08773 2.28494
-3.27775 -1.38875 2.41703
-3.0799 -1.77321 2.42375
-2.61656 -2.5455 2.27617
-2.00119 -3.17347 2.10788
-1.64805 -3.2883 2.23539
-0.992433 -3.53559 2.2454
-0.637387 -3.54501 2.35406
-0.174842 -3.64057 2.29273
0.477856 -3.67248 2.19453
1.24725 -3.47666 2.20853
1.6411 -3.31396 2.20787
2.4147 -2.86114 2.12442
2.81652 -2.29259 2.30406
3.43173 -1.46397 2.14519
3.57484 -1.08147 2.13762
3.701 -0.608101 2.10776
3.72672 -0.166234 2.14346
3.73455 0.359928 2.1075
3.72393 0.918622 1.94593
3.58605 1.38565 1.93684
2.97201 2.49074 1.86552
2.52922 2.84916 2.00412
1.78788 3.35065 2.02922
1.4327 3.53701 1.98792
1.05417 3.51367 2.25682
0.566681 3.58986 2.30564
0.131259 3.59453 2.36445
-0.322744 3.61419 2.31954
-0.726712 3.51072 2.38267
-1.12419 3.32996 2.4821
-1.52239 3.19344 2.45265
-1.88403 3.05332 2.37597
-2.14457 2.71971 2.54915
-2.4571 2.62769 2.35647
-2.53375 2.29482 2.61019
-2.74072 1.97381 2.66283
-3.00592 1.6723 2.5862
-3.00998 1.21852 2.82535
-3.11389 0.611152 2.90813
-3.24059 0.231828 2.82296
-3.25423 -0.183795 2.80975
-3.22049 -0.589807 2.79516
-3.19525 -1.06852 2.68361
-2.97132 -1.48898 2.7363
-2.7436 -1.86019 2.74952
-2.60447 -2.25251 2.57496
-2.27407 -2.6049 2.56263
-2.03323 -2.92017 2.41732
-1.66718 -3.01689 2.58033
-1.27373 -3.31501 2.43159
-0.864748 -3.27089 2.66664
-0.427859 -3.37849 2.63497
0.151708 -3.53799 2.44696
0.861787 -3.51909 2.32341
1.9777 -3.04178 2.31543
2.53166 -2.53227 2.38145
2.9871 -1.96191 2.39411
3.17795 -1.59186 2.42493
3.29185 -1.17695 2.51354
3.44974 -0.840955 2.43331
3.53555 -0.425269 2.41608
3.56225 0.0521288 2.41447
3.51702 0.437449 2.4377
3.59328 0.747953 2.24727
3.48959 1.14007 2.24615
3.28266 1.44783 2.37366
3.30946 1.74204 2.12915
3.11485 2.09726 2.09587
2.75256 2.5074 2.15193
2.05965 3.07944 2.18345
1.43634 3.32252 2.32898
0.799792 3.38497 2.53124
0.415207 3.35806 2.6653
-0.0142274 3.39416 2.64461
-0.407835 3.36754 2.65019
-0.783007 3.24963 2.71192
-1.16645 3.07022 2.78073
-1.50396 2.91861 2.7836
-1.84204 2.75575 2.74156
-2.20936 2.39673 2.80917
-2.76799 1.55946 2.90574
-2.90142 0.875437 3.0552
-3.00052 -0.00356315 3.08553
-2.98674 -0.82024 2.98694
-2.85022 -1.1994 2.99653
-2.60809 -1.54996 3.05171
-2.33844 -2.22909 2.84063
-1.87474 -2.70221 2.77527
-1.28529 -3.05299 2.74457
-0.0693477 -3.32159 2.73626
0.525342 -3.41365 2.56981
0.913695 -3.26154 2.65595
1.32512 -3.21071 2.5409
1.65645 -2.99481 2.61327
2.16767 -2.7432 2.50563
2.35397 -2.3756 2.70519
2.64863 -2.07968 2.67977
2.85989 -1.71966 2.71553
3.01463 -1.3495 2.75797
3.27712 -0.601537 2.72515
3.34762 -0.198726 2.69721
3.31401 0.2271 2.74071
3.32649 0.710378 2.6388
3.24654 1.07949 2.61401
3.02884 1.78815 2.47881
2.87155 2.15948 2.36528
2.5105 2.50903 2.42739
2.28833 2.80252 2.32744
1.73425 3.0737 2.46465
1.28937 3.13915 2.64577
0.924261 3.14735 2.78273
0.233199 3.13083 2.94216
-0.51022 3.05726 2.98571
-0.880414 2.93387 3.02194
-1.56858 2.5902 3.05665
-2.20295 2.07461 3.05703
-2.50665 1.86919 2.95755
-2.65433 1.20046 3.16776
-2.86971 0.388435 3.18749
-2.92203 -0.420801 3.13691
-2.38686 -1.88091 3.04714
-2.00144 -2.37752 2.97237
-1.47526 -2.75026 2.96759
-1.01281 -2.94218 2.97505
-0.543459 -3.07395 2.9672
0.333244 -3.2096 2.84856
1.87122 -2.69043 2.78822
2.34591 -2.00933 2.99612
3.0949 -0.914639 2.84939
3.09875 -0.116989 2.98328
3.02627 0.833432 2.9468
3.02605 1.43121 2.7062
2.65004 2.11124 2.64948
1.98908 2.77653 2.62019
1.5497 2.87467 2.8071
-0.146237 3.13752 2.94244
-1.88769 2.39008 3.0369
0.852803 -0.241855 4.21201
-2.42316 1.51938 3.21698
-2.61258 0.742176 3.33966
-2.69639 -0.0591271 3.35506
-2.66761 -0.841035 3.27023
-2.48818 -1.22383 3.29342
-1.99341 -2.0355 3.2295
-1.63602 -2.40821 3.16682
-0.127011 -3.04607 3.04035
0.783498 -3.02719 2.96089
1.22312 -2.94552 2.89441
1.5192 -2.68045 3.0078
2.04677 -2.35088 2.96511
2.61141 -1.65395 2.99742
2.80308 -1.19771 3.03932
2.99495 -0.519144 3.04963
3.09173 0.46715 2.95379
2.90763 1.16411 2.94843
2.7568 1.72293 2.82324
2.32569 2.38939 2.71799
2.01052 2.46757 2.88996
1.69688 2.55872 3.01282
1.08707 2.88128 3.0111
0.615849 3.03331 2.99224
-1.18992 2.71743 3.1198
-1.37448 2.36247 3.32525
-1.81854 2.09283 3.29325
-2.10989 1.76913 3.30867
-2.34394 1.08837 3.44469
-2.5427 0.31705 3.45977
-2.57197 -0.463852 3.42204
-2.18941 -1.62063 3.33746
-1.78785 -1.78382 3.48322
-1.49333 -2.14622 3.41898
-1.21798 -2.53668 3.26315
-0.801995 -2.73761 3.21776
-0.418208 -2.73003 3.30785
0.0186064 -2.75369 3.30572
0.373901 -2.94002 3.12262
0.777564 -2.71478 3.24768
1.12425 -2.61057 3.23344
1.70665 -2.32735 3.18999
1.97183 -2.0068 3.25708
2.26417 -1.68604 3.25045
2.49574 -1.30653 3.25109
2.75896 -0.823289 3.20062
2.89999 0.171622 3.17653
2.77303 0.587325 3.24164
2.64731 1.36553 3.10689
2.40966 2.01653 2.93744
2.07933 2.13191 3.10801
1.33773 2.62348 3.13642
0.991299 2.55635 3.31659
0.666268 2.729 3.26048
0.249181 2.83493 3.22976
-0.202908 2.85386 3.21699
-0.634556 2.73069 3.26695
-0.945669 2.48372 3.3871
-1.48224 2.02737 3.49227
-1.74696 1.68473 3.55631
-2.05641 1.40669 3.50767
-2.28413 0.681302 3.58501
-2.34615 -0.128691 3.60757
-2.30107 -0.848725 3.54162
-2.13212 -1.26614 3.51463
-1.72106 -1.42433 3.68425
-1.38859 -1.77533 3.66899
-1.11942 -2.1304 3.56892
-0.837781 -2.41387 3.46526
0.418189 -2.6066 3.3998
1.35139 -2.31422 3.36628
1.5313 -1.97808 3.50668
1.87215 -1.69014 3.48805
2.1384 -1.33788 3.48826
2.39584 -0.938997 3.45275
2.55053 -0.538723 3.42418
2.76123 -0.222087 3.29641
2.59258 0.172191 3.4322
2.62416 0.946954 3.27894
2.43198 1.68206 3.12463
2.12406 1.64642 3.36458
1.87238 1.95219 3.3449
1.61701 2.26683 3.28169
1.23437 2.25273 3.45563
0.83025 2.274 3.56038
0.453855 2.48158 3.48945
0.0243872 2.5686 3.45208
-0.376644 2.5206 3.46967
-0.664132 2.24873 3.60898
-1.07682 2.11194 3.59154
-1.31341 1.73446 3.71468
-1.55848 1.38757 3.76783
-1.93738 1.07735 3.69091
-1.92585 0.674399 3.79068
-2.20706 0.247728 3.68781
-2.15952 -0.499277 3.68843
-1.89531 -1.00806 3.73124
-1.30157 -1.36889 3.86868
-0.490206 -2.2712 3.62054
0.222929 -2.31246 3.62363
1.0354 -2.16073 3.5724
1.4862 -1.61705 3.70012
1.77892 -1.28733 3.70295
2.02001 -0.935075 3.68472
2.19387 -0.559881 3.66152
2.40133 -0.164261 3.56962
2.43113 0.523428 3.51209
2.35058 1.25737 3.37914
1.51435 1.91731 3.54378
0.458339 2.13522 3.70605
-0.304322 2.12711 3.72653
-1.05881 1.50198 3.89129
-1.55774 0.989738 3.88629
-1.83977 0.293038 3.87915
-1.79374 -0.630577 3.8641
-1.01383 -1.68959 3.82513
-0.7363 -1.96135 3.75833
-0.151825 -2.43313 3.54738
0.683099 -2.3135 3.56663
1.10117 -1.81424 3.74528
1.54763 -1.01141 3.88619
1.99532 -0.228867 3.80621
2.1815 0.149936 3.70881
2.26126 0.878961 3.55712
2.00708 1.22597 3.60326
1.7646 1.57579 3.59768
1.13511 1.90104 3.68721
0.0632228 2.23519 3.67709
-0.447105 1.78854 3.88709
-0.84274 1.85408 3.78999
-1.18909 1.15978 3.97086
-1.51025 0.615899 3.98596
-1.92857 -0.14379 3.85023
-1.49625 -1.03302 3.90053
-0.841506 -1.35285 3.99756
-0.496759 -1.63799 3.94977
-0.235244 -1.97085 3.82066
0.194437 -1.98619 3.80905
0.634412 -1.9343 3.79483
0.453743 -1.54957 3.98707
1.26159 -1.33062 3.89715
1.77308 -0.658007 3.86786
2.05741 0.518779 3.7447
1.8597 0.881754 3.78167
1.59979 1.22695 3.8015
1.33984 1.55845 3.78314
0.786911 1.89981 3.77712
0.411121 1.76299 3.90107
0.0132879 1.8258 3.8979
-0.661801 1.43154 4.00351
-1.04088 0.837465 4.09051
-1.18222 0.425067 4.11774
-1.50396 0.140007 4.0304
-1.55001 -0.300061 4.00485
-1.36295 -0.673476 4.02591
-1.03262 -0.989511 4.06344
0.0434009 -1.63618 3.97805
0.862448 -1.53275 3.92761
1.02004 -1.033 4.05069
1.31407 -0.72956 4.0355
1.61141 -0.310892 3.97953
1.77131 0.123655 3.92318
1.67596 0.526307 3.92818
1.42072 0.925263 3.95755
1.1286 1.27453 3.95368
0.804776 1.52847 3.9425
0.32352 1.42801 4.04597
-0.221674 1.47377 4.0349
-0.67743 1.06788 4.11388
-1.16835 -0.109296 4.144
-1.0187 -0.523376 4.14929
-0.534206 -1.10551 4.12329
-0.211188 -1.3511 4.07763
0.182182 -1.17792 4.13557
0.616844 -1.16503 4.09776
1.20791 -0.348349 4.11418
1.38117 0.0500448 4.079
1.30641 0.523433 4.06713
1.01785 0.862539 4.09066
0.702487 1.14438 4.0891
-0.0120715 1.17763 4.13717
-0.33304 0.929413 4.18676
-0.756112 0.595788 4.1954
-0.842045 0.169261 4.21787
-0.702254 -0.254383 4.23882
-0.63647 -0.721964 4.19605
-0.152806 -0.889882 4.2093
0.4135 -0.794154 4.21029
0.81168 -0.673845 4.17524
1.04451 0.249131 4.16681
0.758412 0.597753 4.19697
0.36255 0.99695 4.16914
-0.0046994 0.704141 4.24467
-0.405519 0.491375 4.25723
-0.406753 0.0413448 4.28748
-0.322228 -0.435701 4.27147
-0.0517669 0.284052 4.29155
0.0929588 -0.56234 4.26089
0.692965 0.133259 4.24484
0.438271 -0.307903 4.27463
0.324228 0.151415 4.2898
0.379909 0.586033 4.2459
-0.000636857 -0.146618 4.30216
